-0.645428 -0.0214439 0.0346689
-0.645742 -0.0216536 0.0346584
-0.646055 -0.0218632 0.034648
-0.646229 -0.0222959 0.0349078
-0.646963 -0.0218365 0.0340866
-0.646996 -0.0224921 0.0346167
-0.64745 -0.0224788 0.034336
-0.647763 -0.0226884 0.0343256
-0.648077 -0.0228981 0.0343152
-0.648391 -0.0231077 0.0343047
-0.648704 -0.0233173 0.0342943
-0.649158 -0.023304 0.0340136
-0.649191 -0.0239596 0.0345437
-0.649505 -0.0241693 0.0345333
-0.649678 -0.0246019 0.0347931
-0.649992 -0.0248115 0.0347827
-0.650726 -0.0243522 0.0339615
-0.650899 -0.0247848 0.0342213
-0.651213 -0.0249945 0.0342109
-0.651667 -0.0249811 0.0339302
-0.65198 -0.0251907 0.0339197
-0.652294 -0.0254004 0.0339093
-0.652467 -0.025833 0.0341691
-0.652921 -0.0258196 0.0338884
-0.653655 -0.0253603 0.0330672
-0.653828 -0.0257929 0.0333271
-0.654142 -0.0260026 0.0333166
-0.654456 -0.0262122 0.0333062
-0.654629 -0.0266448 0.033566
-0.655223 -0.0264085 0.0330151
-0.655536 -0.0266181 0.0330046
-0.65585 -0.0268277 0.0329942
-0.656024 -0.0272604 0.0332541
-0.656337 -0.02747 0.0332436
-0.656651 -0.0276797 0.0332332
-0.657104 -0.0276663 0.0329525
-0.657838 -0.0272069 0.0321313
-0.658152 -0.0274166 0.0321208
-0.658466 -0.0276262 0.0321104
-0.658779 -0.0278358 0.0321
-0.659093 -0.0280455 0.0320896
-0.659266 -0.0284781 0.0323494
-0.65958 -0.0286878 0.032339
-0.660174 -0.0284514 0.031788
-0.660487 -0.028661 0.0317776
-0.660801 -0.0288707 0.0317671
-0.660974 -0.0293033 0.032027
-0.661288 -0.029513 0.0320165
-0.661321 -0.0301686 0.0325466
-0.661635 -0.0303783 0.0325362
-0.662369 -0.0299189 0.031715
-0.662963 -0.0296825 0.031164
-0.663276 -0.0298921 0.0311536
-0.66359 -0.0301018 0.0311432
-0.663903 -0.0303114 0.0311327
-0.664217 -0.0305211 0.0311223
-0.664531 -0.0307307 0.0311119
-0.664844 -0.0309403 0.0311015
-0.665158 -0.03115 0.031091
-0.665471 -0.0313596 0.0310806
-0.665785 -0.0315693 0.0310702
-0.666098 -0.0317789 0.0310597
-0.666412 -0.0319885 0.0310493
-0.667286 -0.0313061 0.0299578
-0.667319 -0.0319618 0.0304879
-0.667633 -0.0321714 0.0304775
-0.668367 -0.0317121 0.0296563
-0.668681 -0.0319217 0.0296458
-0.668994 -0.0321313 0.0296354
-0.669308 -0.032341 0.029625
-0.669901 -0.0321046 0.029074
-0.670355 -0.0320912 0.0287933
-0.670669 -0.0323009 0.0287829
-0.671122 -0.0322875 0.0285022
-0.671436 -0.0324972 0.0284918
-0.67175 -0.0327068 0.0284813
-0.672063 -0.0329164 0.0284709
-0.672377 -0.0331261 0.0284605
-0.67269 -0.0333357 0.0284501
-0.673004 -0.0335454 0.0284396
-0.673318 -0.033755 0.0284292
-0.673631 -0.0339646 0.0284188
-0.673945 -0.0341743 0.0284083
-0.674679 -0.0337149 0.0275871
-0.674992 -0.0339245 0.0275767
-0.675306 -0.0341342 0.0275663
-0.675619 -0.0343438 0.0275558
-0.675933 -0.0345534 0.0275454
-0.676807 -0.0338711 0.0264539
-0.676981 -0.0343037 0.0267137
-0.677294 -0.0345133 0.0267033
-0.677608 -0.034723 0.0266929
-0.677921 -0.0349326 0.0266825
-0.678235 -0.0351423 0.026672
-0.678969 -0.0346829 0.0258508
-0.679282 -0.0348925 0.0258404
-0.679596 -0.0351022 0.0258299
-0.68005 -0.0350888 0.0255493
-0.680363 -0.0352984 0.0255388
-0.680677 -0.0355081 0.0255284
-0.681411 -0.0350487 0.0247072
-0.681724 -0.0352583 0.0246967
-0.682038 -0.035468 0.0246863
-0.682351 -0.0356776 0.0246759
-0.613109 -0.00976117 0.0438968
-0.613423 -0.00997074 0.0438865
-0.613736 -0.0101803 0.0438761
-0.61405 -0.0103899 0.0438658
-0.614364 -0.0105994 0.0438555
-0.614677 -0.010809 0.0438452
-0.615271 -0.0105728 0.043294
-0.615585 -0.0107824 0.0432837
-0.615478 -0.0116606 0.0440846
-0.616072 -0.0114244 0.0435335
-0.616386 -0.011634 0.0435231
-0.616699 -0.0118435 0.0435128
-0.617293 -0.0116073 0.0429617
-0.617607 -0.0118169 0.0429514
-0.61792 -0.0120265 0.0429411
-0.617954 -0.0126818 0.0434715
-0.618407 -0.0126685 0.0431908
-0.618721 -0.0128781 0.0431805
-0.619035 -0.0130876 0.0431702
-0.619488 -0.0130743 0.0428894
-0.619802 -0.0132839 0.0428791
-0.620116 -0.0134934 0.0428688
-0.620429 -0.013703 0.0428585
-0.620743 -0.0139126 0.0428482
-0.621197 -0.0138993 0.0425674
-0.62151 -0.0141088 0.0425571
-0.621824 -0.0143184 0.0425468
-0.621438 -0.0156424 0.0438885
-0.622171 -0.0151833 0.0430669
-0.622485 -0.0153929 0.0430566
-0.622799 -0.0156024 0.0430463
-0.623112 -0.015812 0.043036
-0.623706 -0.0155758 0.0424848
-0.62402 -0.0157854 0.0424745
-0.624333 -0.0159949 0.0424642
-0.624647 -0.0162045 0.0424539
-0.62496 -0.0164141 0.0424436
-0.625274 -0.0166236 0.0424332
-0.625588 -0.0168332 0.0424229
-0.626041 -0.0168199 0.0421422
-0.626355 -0.0170295 0.0421319
-0.626669 -0.017239 0.0421215
-0.629643 -0.0132138 0.0369736
-0.629956 -0.0134234 0.0369633
-0.63013 -0.0138559 0.0372234
-0.630444 -0.0140654 0.037213
-0.631037 -0.0138292 0.0366619
-0.631071 -0.0144846 0.0371924
-0.631385 -0.0146941 0.0371821
-0.632398 -0.0137893 0.0358197
-0.632712 -0.0139988 0.0358094
-0.633026 -0.0142084 0.0357991
-0.633339 -0.014418 0.0357888
-0.634073 -0.0139589 0.0349673
-0.634387 -0.0141685 0.0349569
-0.63428 -0.0150467 0.0357578
-0.634594 -0.0152563 0.0357475
-0.634908 -0.0154658 0.0357372
-0.635221 -0.0156754 0.0357268
-0.635675 -0.0156621 0.0354461
-0.635989 -0.0158716 0.0354358
-0.636302 -0.0160812 0.0354255
-0.636616 -0.0162908 0.0354151
-0.63707 -0.0162775 0.0351344
-0.637383 -0.016487 0.0351241
-0.637557 -0.0169195 0.0353842
-0.63787 -0.017129 0.0353739
-0.638744 -0.0164471 0.0342819
-0.639058 -0.0166567 0.0342716
-0.638531 -0.0182035 0.0358837
-0.639545 -0.0172987 0.0345214
-0.639719 -0.0177311 0.0347814
-0.640032 -0.0179407 0.0347711
-0.640346 -0.0181503 0.0347608
-0.64066 -0.0183598 0.0347505
-0.640413 -0.0194609 0.0358218
-0.641007 -0.0192247 0.0352706
-0.641321 -0.0194343 0.0352603
-0.641634 -0.0196439 0.03525
-0.642368 -0.0191848 0.0344285
-0.642682 -0.0193944 0.0344181
-0.642995 -0.0196039 0.0344078
-0.643309 -0.0198135 0.0343975
-0.643622 -0.0200231 0.0343872
-0.643656 -0.0206784 0.0349176
-0.64397 -0.020888 0.0349073
-0.644283 -0.0210975 0.034897
-0.644597 -0.0213071 0.0348867
-0.644911 -0.0215167 0.0348764
-0.645364 -0.0215033 0.0345956
-0.645678 -0.0217129 0.0345853
-0.645992 -0.0219225 0.034575
-0.646165 -0.0223549 0.0348351
-0.646899 -0.0218958 0.0340135
-0.647213 -0.0221054 0.0340032
-0.647386 -0.0225379 0.0342633
-0.6477 -0.0227474 0.034253
-0.648014 -0.022957 0.0342427
-0.648327 -0.0231666 0.0342323
-0.648641 -0.0233761 0.034222
-0.649095 -0.0233628 0.0339413
-0.649128 -0.0240182 0.0344718
-0.649442 -0.0242277 0.0344614
-0.649615 -0.0246602 0.0347215
-0.649929 -0.0248697 0.0347112
-0.650943 -0.0239649 0.0333489
-0.650836 -0.0248431 0.0341497
-0.65115 -0.0250527 0.0341394
-0.651604 -0.0250394 0.0338587
-0.651917 -0.0252489 0.0338484
-0.652231 -0.0254585 0.0338381
-0.652545 -0.0256681 0.0338277
-0.652858 -0.0258776 0.0338174
-0.653592 -0.0254186 0.0329959
-0.653766 -0.025851 0.033256
-0.654079 -0.0260606 0.0332456
-0.654393 -0.0262701 0.0332353
-0.654567 -0.0267026 0.0334954
-0.65516 -0.0264664 0.0329443
-0.655474 -0.026676 0.0329339
-0.655787 -0.0268855 0.0329236
-0.655961 -0.027318 0.0331837
-0.656275 -0.0275275 0.0331734
-0.656588 -0.0277371 0.0331631
-0.657042 -0.0277238 0.0328823
-0.657776 -0.0272647 0.0320608
-0.658089 -0.0274743 0.0320505
-0.658403 -0.0276839 0.0320402
-0.658717 -0.0278934 0.0320298
-0.65903 -0.028103 0.0320195
-0.659204 -0.0285354 0.0322796
-0.659518 -0.028745 0.0322693
-0.660111 -0.0285088 0.0317181
-0.660425 -0.0287184 0.0317078
-0.660739 -0.028928 0.0316975
-0.660632 -0.0298062 0.0324984
-0.661226 -0.02957 0.0319473
-0.66126 -0.0302253 0.0324777
-0.661573 -0.0304349 0.0324674
-0.662307 -0.0299758 0.0316459
-0.662901 -0.0297396 0.0310948
-0.663214 -0.0299492 0.0310844
-0.663668 -0.0299358 0.0308037
-0.663842 -0.0303683 0.0310638
-0.664155 -0.0305779 0.0310535
-0.664469 -0.0307874 0.0310432
-0.664782 -0.030997 0.0310328
-0.665096 -0.0312066 0.0310225
-0.66541 -0.0314161 0.0310122
-0.665723 -0.0316257 0.0310019
-0.666037 -0.0318353 0.0309915
-0.666351 -0.0320448 0.0309812
-0.667224 -0.0313629 0.0298893
-0.667258 -0.0320182 0.0304198
-0.667572 -0.0322278 0.0304094
-0.668305 -0.0317687 0.0295879
-0.668619 -0.0319783 0.0295776
-0.668933 -0.0321878 0.0295673
-0.669246 -0.0323974 0.029557
-0.66942 -0.0328299 0.029817
-0.670294 -0.0321479 0.0287251
-0.670607 -0.0323575 0.0287148
-0.671061 -0.0323441 0.0284341
-0.671375 -0.0325537 0.0284237
-0.671688 -0.0327633 0.0284134
-0.672002 -0.0329728 0.0284031
-0.672316 -0.0331824 0.0283928
-0.672629 -0.033392 0.0283824
-0.672943 -0.0336015 0.0283721
-0.673257 -0.0338111 0.0283618
-0.67357 -0.0340207 0.0283515
-0.673884 -0.0342303 0.0283412
-0.674618 -0.0337712 0.0275196
-0.674931 -0.0339807 0.0275093
-0.675245 -0.0341903 0.027499
-0.675558 -0.0343999 0.0274887
-0.675872 -0.0346094 0.0274783
-0.676746 -0.0339275 0.0263864
-0.676919 -0.0343599 0.0266465
-0.677233 -0.0345695 0.0266362
-0.677547 -0.0347791 0.0266258
-0.678 -0.0347658 0.0263451
-0.678174 -0.0351982 0.0266052
-0.678908 -0.0347391 0.0257837
-0.679221 -0.0349487 0.0257734
-0.679675 -0.0349354 0.0254926
-0.679989 -0.0351449 0.0254823
-0.680302 -0.0353545 0.025472
-0.680616 -0.0355641 0.0254617
-0.68135 -0.035105 0.0246401
-0.681663 -0.0353146 0.0246298
-0.681977 -0.0355241 0.0246195
-0.682291 -0.0357337 0.0246092
-0.613231 -0.00945136 0.0431928
-0.613265 -0.0101063 0.0437238
-0.613579 -0.0103158 0.0437136
-0.613892 -0.0105253 0.0437033
-0.614206 -0.0107348 0.0436931
-0.6148 -0.0104989 0.0431417
-0.615113 -0.0107084 0.0431314
-0.615427 -0.0109179 0.0431212
-0.615741 -0.0111274 0.043111
-0.615915 -0.0115596 0.0433713
-0.616228 -0.0117691 0.0433611
-0.616542 -0.0119786 0.0433509
-0.616856 -0.0121881 0.0433406
-0.617449 -0.0119522 0.0427892
-0.617763 -0.0121617 0.0427789
-0.618076 -0.0123712 0.0427687
-0.61825 -0.0128034 0.0430291
-0.618564 -0.0130129 0.0430188
-0.618878 -0.0132224 0.0430086
-0.619471 -0.0129865 0.0424572
-0.619645 -0.0134187 0.0427175
-0.619959 -0.0136282 0.0427073
-0.620272 -0.0138377 0.0426971
-0.620586 -0.0140472 0.0426868
-0.62104 -0.014034 0.042406
-0.621353 -0.0142435 0.0423958
-0.621667 -0.014453 0.0423855
-0.621841 -0.0148853 0.0426459
-0.622154 -0.0150948 0.0426357
-0.622328 -0.015527 0.042896
-0.622642 -0.0157365 0.0428858
-0.622956 -0.015946 0.0428756
-0.623549 -0.0157101 0.0423241
-0.623863 -0.0159196 0.0423139
-0.624177 -0.0161291 0.0423036
-0.62449 -0.0163386 0.0422934
-0.624804 -0.0165481 0.0422832
-0.625118 -0.0167576 0.0422729
-0.625431 -0.0169671 0.0422627
-0.625745 -0.0171766 0.0422525
-0.625779 -0.0178315 0.0427835
-0.62973 -0.0122507 0.0357374
-0.629484 -0.013351 0.0368096
-0.629798 -0.0135605 0.0367994
-0.630252 -0.0135473 0.0365185
-0.630565 -0.0137568 0.0365083
-0.630879 -0.0139663 0.0364981
-0.631612 -0.0135077 0.035676
-0.631926 -0.0137172 0.0356658
-0.63252 -0.0134813 0.0351143
-0.632553 -0.0141362 0.0356453
-0.632867 -0.0143457 0.0356351
-0.63388 -0.0134417 0.0342718
-0.633914 -0.0140966 0.0348028
-0.634228 -0.0143061 0.0347925
-0.634122 -0.0151838 0.0355941
-0.634436 -0.0153933 0.0355839
-0.634749 -0.0156028 0.0355737
-0.635203 -0.0155896 0.0352928
-0.635517 -0.0157991 0.0352826
-0.63597 -0.0157859 0.0350017
-0.636144 -0.0162181 0.0352621
-0.636458 -0.0164276 0.0352519
-0.636911 -0.0164144 0.034971
-0.637225 -0.0166239 0.0349608
-0.637678 -0.0166107 0.03468
-0.637712 -0.0172656 0.0352109
-0.638586 -0.0165843 0.0341183
-0.638899 -0.0167938 0.034108
-0.639073 -0.017226 0.0343684
-0.639247 -0.0176582 0.0346288
-0.639561 -0.0178677 0.0346186
-0.639874 -0.0180772 0.0346083
-0.640328 -0.018064 0.0343275
-0.640502 -0.0184962 0.0345879
-0.640815 -0.0187057 0.0345776
-0.640849 -0.0193606 0.0351086
-0.641163 -0.0195701 0.0350984
-0.641477 -0.0197796 0.0350881
-0.64221 -0.019321 0.0342661
-0.642524 -0.0195305 0.0342558
-0.642837 -0.01974 0.0342456
-0.643151 -0.0199495 0.0342354
-0.643465 -0.020159 0.0342251
-0.643918 -0.0201458 0.0339443
-0.644232 -0.0203553 0.0339341
-0.644686 -0.0203421 0.0336532
-0.644999 -0.0205516 0.033643
-0.645033 -0.0212066 0.034174
-0.645347 -0.0214161 0.0341637
-0.645521 -0.0218483 0.0344241
-0.645834 -0.0220578 0.0344139
-0.646148 -0.0222673 0.0344036
-0.646742 -0.0220314 0.0338522
-0.647055 -0.0222409 0.0338419
-0.647649 -0.022005 0.0332905
-0.647963 -0.0222145 0.0332803
-0.648276 -0.022424 0.03327
-0.64845 -0.0228562 0.0335304
-0.648764 -0.0230657 0.0335202
-0.648938 -0.0234979 0.0337805
-0.649251 -0.0237074 0.0337703
-0.649285 -0.0243623 0.0343013
-0.649599 -0.0245718 0.0342911
-0.650472 -0.0238905 0.0331984
-0.650786 -0.0241 0.0331882
-0.6511 -0.0243095 0.0331779
-0.651413 -0.024519 0.0331677
-0.651727 -0.0247285 0.0331574
-0.651761 -0.0253834 0.0336884
-0.652074 -0.0255929 0.0336782
-0.652388 -0.0258024 0.033668
-0.653261 -0.0251211 0.0325753
-0.653575 -0.0253306 0.0325651
-0.653609 -0.0259855 0.033096
-0.653923 -0.026195 0.0330858
-0.654236 -0.0264045 0.0330756
-0.65455 -0.026614 0.0330653
-0.655004 -0.0266008 0.0327845
-0.655317 -0.0268103 0.0327743
-0.655631 -0.0270199 0.032764
-0.655805 -0.0274521 0.0330244
-0.656119 -0.0276616 0.0330142
-0.656712 -0.0274257 0.0324627
-0.657306 -0.0271898 0.0319113
-0.657619 -0.0273993 0.031901
-0.657933 -0.0276088 0.0318908
-0.658247 -0.0278183 0.0318806
-0.65856 -0.0280278 0.0318703
-0.658874 -0.0282373 0.0318601
-0.659188 -0.0284468 0.0318499
-0.659641 -0.0284336 0.031569
-0.659955 -0.0286431 0.0315588
-0.660269 -0.0288526 0.0315485
-0.660582 -0.0290621 0.0315383
-0.660896 -0.0292716 0.0315281
-0.66107 -0.0297038 0.0317885
-0.661663 -0.0294679 0.031237
-0.662397 -0.0290093 0.0304149
-0.662711 -0.0292188 0.0304047
-0.662744 -0.0298737 0.0309357
-0.663058 -0.0300832 0.0309255
-0.663372 -0.0302927 0.0309152
-0.663685 -0.0305022 0.030905
-0.664279 -0.0302663 0.0303535
-0.664593 -0.0304758 0.0303433
-0.664627 -0.0311307 0.0308743
-0.66494 -0.0313402 0.030864
-0.665814 -0.0306589 0.0297714
-0.665708 -0.0315365 0.030573
-0.666441 -0.0310779 0.0297509
-0.666755 -0.0312874 0.0297407
-0.667068 -0.0314969 0.0297304
-0.667382 -0.0317064 0.0297202
-0.667696 -0.0319159 0.02971
-0.668009 -0.0321254 0.0296997
-0.668463 -0.0321122 0.0294189
-0.668777 -0.0323217 0.0294087
-0.66909 -0.0325312 0.0293984
-0.669824 -0.0320726 0.0285764
-0.670137 -0.0322821 0.0285661
-0.670451 -0.0324916 0.0285559
-0.670905 -0.0324784 0.0282751
-0.671218 -0.0326879 0.0282648
-0.671532 -0.0328974 0.0282546
-0.671846 -0.033107 0.0282444
-0.67216 -0.0333165 0.0282341
-0.672473 -0.033526 0.0282239
-0.672787 -0.0337355 0.0282137
-0.673101 -0.033945 0.0282034
-0.673414 -0.0341545 0.0281932
-0.674148 -0.0336959 0.0273711
-0.674461 -0.0339054 0.0273609
-0.675055 -0.0336695 0.0268094
-0.675369 -0.033879 0.0267992
-0.675682 -0.0340885 0.026789
-0.676416 -0.0336299 0.0259669
-0.67659 -0.0340621 0.0262273
-0.676903 -0.0342716 0.0262171
-0.677217 -0.0344811 0.0262068
-0.677531 -0.0346906 0.0261966
-0.677704 -0.0351228 0.026457
-0.678018 -0.0353323 0.0264467
-0.678891 -0.034651 0.0253541
-0.679205 -0.0348605 0.0253438
-0.679519 -0.03507 0.0253336
-0.679832 -0.0352795 0.0253234
-0.680146 -0.035489 0.0253131
-0.68046 -0.0356985 0.0253029
-0.681193 -0.0352399 0.0244808
-0.681507 -0.0354494 0.0244706
-0.681821 -0.0356589 0.0244604
-0.682134 -0.0358684 0.0244501
-0.613146 -0.00956647 0.0430977
-0.61318 -0.0102212 0.0436289
-0.613494 -0.0104306 0.0436187
-0.613807 -0.0106401 0.0436086
-0.614121 -0.0108496 0.0435984
-0.614715 -0.0106139 0.0430467
-0.615028 -0.0108234 0.0430365
-0.615342 -0.0110329 0.0430264
-0.615656 -0.0112424 0.0430162
-0.61583 -0.0116745 0.0432767
-0.616143 -0.011884 0.0432665
-0.616457 -0.0120935 0.0432563
-0.616771 -0.012303 0.0432461
-0.617364 -0.0120673 0.0426945
-0.617678 -0.0122767 0.0426843
-0.617991 -0.0124862 0.0426741
-0.618165 -0.0129183 0.0429346
-0.618479 -0.0131278 0.0429244
-0.618793 -0.0133373 0.0429142
-0.619386 -0.0131016 0.0423626
-0.61984 -0.0130885 0.0420817
-0.619874 -0.0137432 0.042613
-0.620187 -0.0139527 0.0426028
-0.620921 -0.0134944 0.0417804
-0.621234 -0.0137039 0.0417702
-0.621268 -0.0143586 0.0423015
-0.621582 -0.014568 0.0422913
-0.621756 -0.0150001 0.0425518
-0.62207 -0.0152096 0.0425416
-0.622523 -0.0151965 0.0422607
-0.622977 -0.0151834 0.0419798
-0.62329 -0.0153929 0.0419696
-0.622905 -0.0167154 0.043313
-0.623778 -0.0160345 0.0422199
-0.624092 -0.016244 0.0422097
-0.624405 -0.0164535 0.0421996
-0.624719 -0.016663 0.0421894
-0.625033 -0.0168724 0.0421792
-0.625346 -0.0170819 0.042169
-0.628597 -0.0126168 0.0364737
-0.628911 -0.0128263 0.0364635
-0.629644 -0.012368 0.0356411
-0.629958 -0.0125775 0.035631
-0.630272 -0.012787 0.0356208
-0.630865 -0.0125513 0.0350691
-0.631319 -0.0125382 0.0347882
-0.630933 -0.0138607 0.0361316
-0.631526 -0.013625 0.03558
-0.63184 -0.0138345 0.0355698
-0.632433 -0.0135988 0.0350182
-0.632747 -0.0138083 0.035008
-0.63362 -0.0131273 0.0339149
-0.633794 -0.0135594 0.0341754
-0.633968 -0.0139915 0.034436
-0.634282 -0.014201 0.0344258
-0.634595 -0.0144105 0.0344156
-0.63435 -0.0155104 0.0354883
-0.635363 -0.0146069 0.0341245
-0.635676 -0.0148164 0.0341143
-0.635571 -0.0156937 0.0349163
-0.635884 -0.0159032 0.0349061
-0.636058 -0.0163353 0.0351666
-0.636512 -0.0163221 0.0348857
-0.636825 -0.0165316 0.0348755
-0.637279 -0.0165185 0.0345946
-0.638152 -0.0158376 0.0335015
-0.638466 -0.0160471 0.0334913
-0.6385 -0.0167018 0.0340226
-0.638813 -0.0169113 0.0340124
-0.638987 -0.0173434 0.0342729
-0.639301 -0.0175529 0.0342627
-0.639475 -0.017985 0.0345233
-0.639788 -0.0181945 0.0345131
-0.640242 -0.0181814 0.0342321
-0.640835 -0.0179456 0.0336805
-0.641149 -0.0181551 0.0336703
-0.640764 -0.0194776 0.0350137
-0.641077 -0.0196871 0.0350035
-0.64195 -0.0190062 0.0339105
-0.642264 -0.0192157 0.0339003
-0.642438 -0.0196478 0.0341608
-0.642752 -0.0198573 0.0341506
-0.643065 -0.0200668 0.0341404
-0.643519 -0.0200537 0.0338595
-0.643833 -0.0202632 0.0338493
-0.644146 -0.0204727 0.0338391
-0.6446 -0.0204595 0.0335582
-0.644914 -0.020669 0.033548
-0.645507 -0.0204333 0.0329964
-0.645261 -0.0215332 0.0340691
-0.645435 -0.0219653 0.0343296
-0.645749 -0.0221748 0.0343194
-0.646063 -0.0223843 0.0343092
-0.646656 -0.0221486 0.0337576
-0.64697 -0.0223581 0.0337474
-0.647703 -0.0218998 0.0329251
-0.647877 -0.0223319 0.0331856
-0.64819 -0.0225413 0.0331754
-0.648504 -0.0227508 0.0331652
-0.648818 -0.0229603 0.033155
-0.648852 -0.023615 0.0336863
-0.649166 -0.0238245 0.0336761
-0.6492 -0.0244792 0.0342073
-0.649933 -0.0240209 0.033385
-0.650386 -0.0240078 0.0331041
-0.6507 -0.0242173 0.0330939
-0.651014 -0.0244268 0.0330837
-0.651327 -0.0246363 0.0330735
-0.651641 -0.0248458 0.0330633
-0.651675 -0.0255004 0.0335945
-0.651989 -0.0257099 0.0335843
-0.653002 -0.0248064 0.0322206
-0.653176 -0.0252385 0.0324811
-0.653489 -0.025448 0.0324709
-0.653523 -0.0261027 0.0330021
-0.653837 -0.0263122 0.032992
-0.654151 -0.0265217 0.0329818
-0.654465 -0.0267312 0.0329716
-0.654918 -0.0267181 0.0326907
-0.655232 -0.0269276 0.0326805
-0.655545 -0.0271371 0.0326703
-0.656139 -0.0269013 0.0321186
-0.656313 -0.0273334 0.0323792
-0.656626 -0.0275429 0.032369
-0.65694 -0.0277524 0.0323588
-0.657534 -0.0275167 0.0318072
-0.657847 -0.0277262 0.031797
-0.658161 -0.0279357 0.0317868
-0.658475 -0.0281452 0.0317766
-0.658788 -0.0283547 0.0317664
-0.659102 -0.0285642 0.0317562
-0.659695 -0.0283285 0.0312046
-0.659869 -0.0287605 0.0314651
-0.660183 -0.02897 0.0314549
-0.660497 -0.0291795 0.0314447
-0.66081 -0.029389 0.0314345
-0.660984 -0.0298211 0.0316951
-0.661997 -0.0289176 0.0303313
-0.662311 -0.0291271 0.0303211
-0.662625 -0.0293366 0.0303109
-0.662938 -0.0295461 0.0303007
-0.663252 -0.0297556 0.0302905
-0.663426 -0.0301877 0.030551
-0.6636 -0.0306198 0.0308116
-0.664193 -0.030384 0.0302599
-0.664507 -0.0305935 0.0302497
-0.664821 -0.030803 0.0302396
-0.665414 -0.0305673 0.0296879
-0.665728 -0.0307768 0.0296777
-0.665902 -0.0312089 0.0299383
-0.666355 -0.0311958 0.0296573
-0.666669 -0.0314053 0.0296472
-0.666983 -0.0316148 0.029637
-0.667296 -0.0318243 0.0296268
-0.66761 -0.0320338 0.0296166
-0.668063 -0.0320207 0.0293357
-0.668377 -0.0322301 0.0293255
-0.668691 -0.0324396 0.0293153
-0.669564 -0.0317587 0.0282222
-0.669738 -0.0321908 0.0284827
-0.670052 -0.0324003 0.0284726
-0.670365 -0.0326098 0.0284624
-0.670819 -0.0325967 0.0281815
-0.671133 -0.0328062 0.0281713
-0.671446 -0.0330157 0.0281611
-0.67176 -0.0332252 0.0281509
-0.672074 -0.0334347 0.0281407
-0.672387 -0.0336442 0.0281305
-0.672841 -0.033631 0.0278496
-0.673155 -0.0338405 0.0278394
-0.673748 -0.0336048 0.0272878
-0.674062 -0.0338143 0.0272776
-0.674375 -0.0340238 0.0272674
-0.674689 -0.0342333 0.0272572
-0.675283 -0.0339976 0.0267056
-0.675596 -0.0342071 0.0266954
-0.676329 -0.0337488 0.025873
-0.676643 -0.0339583 0.0258628
-0.676817 -0.0343904 0.0261234
-0.677131 -0.0345999 0.0261132
-0.677444 -0.0348093 0.026103
-0.677758 -0.0350188 0.0260928
-0.677932 -0.0354509 0.0263533
-0.678805 -0.03477 0.0252602
-0.679119 -0.0349795 0.0252501
-0.679433 -0.035189 0.0252399
-0.679746 -0.0353985 0.0252297
-0.68006 -0.035608 0.0252195
-0.680374 -0.0358175 0.0252093
-0.681387 -0.034914 0.0238455
-0.681421 -0.0355687 0.0243767
-0.681734 -0.0357782 0.0243666
-0.682048 -0.0359876 0.0243564
-0.612917 -0.0097716 0.042922
-0.613231 -0.00998102 0.0429118
-0.613265 -0.0106352 0.0434437
-0.613579 -0.0108446 0.0434336
-0.614033 -0.0108317 0.0431525
-0.614346 -0.0110411 0.0431424
-0.6148 -0.0110281 0.0428613
-0.615114 -0.0112375 0.0428512
-0.615288 -0.0116693 0.0431121
-0.615881 -0.011434 0.04256
-0.615915 -0.0120882 0.0430918
-0.616229 -0.0122976 0.0430817
-0.616543 -0.012507 0.0430716
-0.617136 -0.0122716 0.0425196
-0.61745 -0.012481 0.0425095
-0.61916 -0.0104665 0.0397898
-0.619474 -0.0106759 0.0397796
-0.618251 -0.0133317 0.0427501
-0.618565 -0.0135411 0.04274
-0.619158 -0.0133057 0.042188
-0.619612 -0.0132928 0.0419069
-0.619925 -0.0135022 0.0418968
-0.620239 -0.0137116 0.0418867
-0.620693 -0.0136986 0.0416056
-0.621006 -0.013908 0.0415955
-0.62132 -0.0141175 0.0415854
-0.621354 -0.0147717 0.0421172
-0.621528 -0.0152035 0.0423781
-0.621842 -0.0154129 0.042368
-0.622296 -0.0153999 0.0420869
-0.622609 -0.0156093 0.0420768
-0.623063 -0.0155964 0.0417957
-0.623377 -0.0158058 0.0417856
-0.62369 -0.0160152 0.0417755
-0.626239 -0.0126663 0.03743
-0.624318 -0.016434 0.0417553
-0.624492 -0.0168658 0.0420161
-0.624806 -0.0170753 0.042006
-0.628053 -0.0126144 0.0363057
-0.628367 -0.0128238 0.0362956
-0.6291 -0.012366 0.0354726
-0.629414 -0.0125754 0.0354625
-0.629728 -0.0127848 0.0354524
-0.630181 -0.0127719 0.0351713
-0.630634 -0.0127589 0.0348903
-0.630948 -0.0129683 0.0348802
-0.631402 -0.0129553 0.0345991
-0.631296 -0.0138319 0.0354019
-0.632169 -0.0131518 0.0343079
-0.632483 -0.0133612 0.0342978
-0.633076 -0.0131258 0.0337458
-0.63339 -0.0133352 0.0337357
-0.633703 -0.0135446 0.0337256
-0.633738 -0.0141988 0.0342574
-0.634051 -0.0144083 0.0342473
-0.634365 -0.0146177 0.0342372
-0.634679 -0.0148271 0.034227
-0.635132 -0.0148141 0.033946
-0.635446 -0.0150235 0.0339359
-0.63576 -0.015233 0.0339258
-0.635654 -0.0161096 0.0347285
-0.635968 -0.016319 0.0347184
-0.636282 -0.0165284 0.0347083
-0.637294 -0.0156258 0.0333434
-0.637608 -0.0158353 0.0333333
-0.637922 -0.0160447 0.0333232
-0.638236 -0.0162541 0.0333131
-0.638549 -0.0164635 0.033303
-0.638584 -0.0171177 0.0338348
-0.638758 -0.0175495 0.0340956
-0.639071 -0.0177589 0.0340855
-0.639245 -0.0181908 0.0343464
-0.639559 -0.0184002 0.0343363
-0.640013 -0.0183872 0.0340552
-0.640746 -0.0179294 0.0332322
-0.64092 -0.0183612 0.0334931
-0.641233 -0.0185707 0.033483
-0.640849 -0.0198921 0.0348277
-0.641721 -0.0192119 0.0337337
-0.642035 -0.0194213 0.0337236
-0.642349 -0.0196307 0.0337135
-0.642523 -0.0200625 0.0339744
-0.642836 -0.020272 0.0339642
-0.64329 -0.020259 0.0336832
-0.643604 -0.0204684 0.0336731
-0.643917 -0.0206778 0.033663
-0.64465 -0.02022 0.03284
-0.644964 -0.0204295 0.0328299
-0.645278 -0.0206389 0.0328197
-0.645592 -0.0208483 0.0328096
-0.645207 -0.0221697 0.0341543
-0.645521 -0.0223791 0.0341442
-0.646253 -0.0219213 0.0333212
-0.646427 -0.0223531 0.0335821
-0.64716 -0.0218954 0.0327591
-0.647474 -0.0221048 0.032749
-0.647788 -0.0223142 0.0327389
-0.647962 -0.022746 0.0329997
-0.648276 -0.0229554 0.0329896
-0.648589 -0.0231649 0.0329795
-0.648624 -0.0238191 0.0335113
-0.648938 -0.0240285 0.0335012
-0.649391 -0.0240155 0.0332202
-0.649705 -0.0242249 0.0332101
-0.650158 -0.0242119 0.032929
-0.650472 -0.0244214 0.0329189
-0.650786 -0.0246308 0.0329088
-0.651099 -0.0248402 0.0328987
-0.651413 -0.0250496 0.0328886
-0.651727 -0.025259 0.0328784
-0.65246 -0.0248013 0.0320555
-0.652774 -0.0250107 0.0320453
-0.653087 -0.0252201 0.0320352
-0.653541 -0.0252071 0.0317542
-0.653296 -0.0263061 0.0328279
-0.65361 -0.0265155 0.0328178
-0.653923 -0.026725 0.0328077
-0.654237 -0.0269344 0.0327976
-0.654551 -0.0271438 0.0327875
-0.655004 -0.0271308 0.0325064
-0.655597 -0.0268954 0.0319544
-0.655911 -0.0271049 0.0319443
-0.656644 -0.0266471 0.0311213
-0.656399 -0.0277461 0.032195
-0.657272 -0.0270659 0.0311011
-0.657306 -0.0277201 0.0316329
-0.65762 -0.0279296 0.0316228
-0.657933 -0.028139 0.0316127
-0.658247 -0.0283484 0.0316025
-0.658561 -0.0285578 0.0315924
-0.658875 -0.0287672 0.0315823
-0.659468 -0.0285318 0.0310303
-0.659782 -0.0287413 0.0310202
-0.659956 -0.0291731 0.031281
-0.660269 -0.0293825 0.0312709
-0.660583 -0.0295919 0.0312608
-0.661316 -0.0291341 0.0304378
-0.661769 -0.0291212 0.0301568
-0.662083 -0.0293306 0.0301467
-0.662397 -0.02954 0.0301366
-0.662711 -0.0297494 0.0301264
-0.663024 -0.0299588 0.0301163
-0.663199 -0.0303906 0.0303772
-0.663652 -0.0303777 0.0300961
-0.663966 -0.0305871 0.030086
-0.66428 -0.0307965 0.0300759
-0.664593 -0.0310059 0.0300658
-0.665326 -0.0305481 0.0292428
-0.6655 -0.03098 0.0295037
-0.665814 -0.0311894 0.0294935
-0.666128 -0.0313988 0.0294834
-0.666441 -0.0316082 0.0294733
-0.666755 -0.0318176 0.0294632
-0.667069 -0.0320271 0.0294531
-0.667383 -0.0322365 0.029443
-0.667836 -0.0322235 0.0291619
-0.668569 -0.0317657 0.0283389
-0.669023 -0.0317527 0.0280579
-0.669336 -0.0319622 0.0280478
-0.66951 -0.032394 0.0283086
-0.669824 -0.0326034 0.0282985
-0.670138 -0.0328128 0.0282884
-0.67115 -0.0319102 0.0269235
-0.670905 -0.0330092 0.0279972
-0.671219 -0.0332187 0.0279871
-0.671533 -0.0334281 0.027977
-0.671846 -0.0336375 0.0279669
-0.67216 -0.0338469 0.0279568
-0.672614 -0.0338339 0.0276757
-0.672927 -0.0340434 0.0276656
-0.67366 -0.0335856 0.0268426
-0.673834 -0.0340174 0.0271035
-0.674148 -0.0342268 0.0270934
-0.674462 -0.0344362 0.0270833
-0.675055 -0.0342009 0.0265312
-0.675788 -0.0337431 0.0257082
-0.676102 -0.0339525 0.0256981
-0.676415 -0.0341619 0.025688
-0.676589 -0.0345937 0.0259489
-0.676903 -0.0348032 0.0259388
-0.677217 -0.0350126 0.0259287
-0.677531 -0.035222 0.0259186
-0.677844 -0.0354314 0.0259084
-0.678577 -0.0349736 0.0250855
-0.678891 -0.0351831 0.0250753
-0.679205 -0.0353925 0.0250652
-0.679519 -0.0356019 0.0250551
-0.679832 -0.0358113 0.025045
-0.680845 -0.0349087 0.0236801
-0.681158 -0.0351182 0.02367
-0.681472 -0.0353276 0.0236599
-0.681506 -0.0359818 0.0241917
-0.68182 -0.0361912 0.0241816
-0.612631 -0.00995807 0.0427444
-0.612666 -0.0106117 0.0432769
-0.613258 -0.0103767 0.0427244
-0.613433 -0.0108081 0.0429856
-0.614165 -0.0103509 0.0421619
-0.614479 -0.0105602 0.0421518
-0.614793 -0.0107694 0.0421418
-0.614828 -0.0114231 0.0426742
-0.615281 -0.0114102 0.042393
-0.615595 -0.0116195 0.0423829
-0.615909 -0.0118288 0.0423729
-0.615944 -0.0124825 0.0429053
-0.61821 -0.00958108 0.0390981
-0.618524 -0.00979038 0.039088
-0.620373 -0.00755554 0.0360945
-0.619013 -0.0104312 0.0393392
-0.619326 -0.0106405 0.0393292
-0.61964 -0.0108497 0.0393192
-0.618559 -0.013281 0.0420214
-0.619291 -0.0128237 0.0411977
-0.619326 -0.0134774 0.0417301
-0.61964 -0.0136867 0.0417201
-0.619954 -0.013896 0.0417101
-0.620268 -0.0141053 0.0417001
-0.620721 -0.0140924 0.0414188
-0.621035 -0.0143016 0.0414088
-0.62093 -0.0151775 0.0422124
-0.621244 -0.0153868 0.0422024
-0.621697 -0.0153739 0.0419211
-0.622011 -0.0155832 0.0419111
-0.622325 -0.0157925 0.0419011
-0.622778 -0.0157796 0.0416198
-0.623092 -0.0159889 0.0416098
-0.625638 -0.0126431 0.03726
-0.625952 -0.0128524 0.03725
-0.626266 -0.0130617 0.03724
-0.627138 -0.0123822 0.036145
-0.627452 -0.0125915 0.036135
-0.627765 -0.0128008 0.036125
-0.625568 -0.0170096 0.0409971
-0.628812 -0.0125528 0.0352912
-0.629125 -0.0127621 0.0352812
-0.629439 -0.0129714 0.0352711
-0.629893 -0.0129585 0.0349899
-0.630346 -0.0129456 0.0347086
-0.63066 -0.0131549 0.0346986
-0.631113 -0.013142 0.0344173
-0.628637 -0.0177952 0.0398319
-0.63188 -0.0133384 0.034126
-0.632194 -0.0135477 0.034116
-0.633066 -0.0128682 0.0330211
-0.633101 -0.0135219 0.0335535
-0.633415 -0.0137312 0.0335435
-0.63345 -0.0143849 0.0340759
-0.633763 -0.0145942 0.0340659
-0.634077 -0.0148034 0.0340558
-0.634949 -0.014124 0.0329609
-0.634844 -0.0149998 0.0337645
-0.635158 -0.0152091 0.0337545
-0.635472 -0.0154184 0.0337445
-0.636204 -0.0149611 0.0329207
-0.636518 -0.0151704 0.0329107
-0.636553 -0.0158241 0.0334432
-0.636867 -0.0160334 0.0334331
-0.63732 -0.0160205 0.0331519
-0.637634 -0.0162298 0.0331418
-0.637948 -0.0164391 0.0331318
-0.638262 -0.0166484 0.0331218
-0.638297 -0.0173021 0.0336542
-0.638471 -0.0177336 0.0339154
-0.638785 -0.0179429 0.0339054
-0.639099 -0.0181522 0.0338953
-0.639412 -0.0183614 0.0338853
-0.640145 -0.0179042 0.0330616
-0.640459 -0.0181135 0.0330516
-0.640633 -0.0185449 0.0333128
-0.640947 -0.0187542 0.0333027
-0.641819 -0.0180748 0.0322078
-0.641435 -0.019395 0.0335539
-0.641749 -0.0196043 0.0335439
-0.642063 -0.0198136 0.0335338
-0.642377 -0.0200229 0.0335238
-0.64269 -0.0202322 0.0335138
-0.643004 -0.0204415 0.0335038
-0.643318 -0.0206508 0.0334937
-0.64405 -0.0201935 0.03267
-0.644364 -0.0204028 0.03266
-0.644678 -0.0206121 0.0326499
-0.644992 -0.0208214 0.0326399
-0.645306 -0.0210307 0.0326299
-0.64548 -0.0214622 0.0328911
-0.645794 -0.0216715 0.032881
-0.645968 -0.0221029 0.0331422
-0.64684 -0.0214235 0.0320473
-0.647154 -0.0216328 0.0320373
-0.647189 -0.0222864 0.0325697
-0.647503 -0.0224957 0.0325597
-0.647816 -0.022705 0.0325496
-0.647991 -0.0231365 0.0328108
-0.648305 -0.0233458 0.0328008
-0.648339 -0.0239995 0.0333332
-0.648793 -0.0239866 0.033052
-0.649107 -0.0241959 0.0330419
-0.64942 -0.0244052 0.0330319
-0.649874 -0.0243923 0.0327507
-0.650188 -0.0246016 0.0327406
-0.65092 -0.0241443 0.0319169
-0.651094 -0.0245758 0.0321781
-0.651548 -0.0245629 0.0318968
-0.651443 -0.0254388 0.0327005
-0.652175 -0.0249815 0.0318768
-0.652489 -0.0251908 0.0318667
-0.652803 -0.0254001 0.0318567
-0.653256 -0.0253872 0.0315755
-0.65357 -0.0255965 0.0315654
-0.653326 -0.0266945 0.0326403
-0.65364 -0.0269038 0.0326303
-0.653954 -0.0271131 0.0326203
-0.654268 -0.0273224 0.0326102
-0.655 -0.0268651 0.0317865
-0.655314 -0.0270744 0.0317765
-0.656046 -0.0266171 0.0309528
-0.65636 -0.0268264 0.0309427
-0.656674 -0.0270357 0.0309327
-0.656988 -0.027245 0.0309227
-0.657162 -0.0276765 0.0311839
-0.657336 -0.028108 0.0314451
-0.65765 -0.0283173 0.031435
-0.657964 -0.0285266 0.031425
-0.658278 -0.0287359 0.031415
-0.658592 -0.0289452 0.0314049
-0.659185 -0.0287101 0.0308524
-0.659498 -0.0289194 0.0308424
-0.659812 -0.0291287 0.0308324
-0.659987 -0.0295601 0.0310936
-0.6603 -0.0297694 0.0310836
-0.661033 -0.0293122 0.0302598
-0.661765 -0.0288549 0.0294361
-0.662079 -0.0290642 0.0294261
-0.662253 -0.0294956 0.0296873
-0.662567 -0.0297049 0.0296772
-0.662881 -0.0299142 0.0296672
-0.663334 -0.0299013 0.029386
-0.663369 -0.030555 0.0299184
-0.663683 -0.0307643 0.0299084
-0.663997 -0.0309736 0.0298983
-0.664311 -0.0311829 0.0298883
-0.665043 -0.0307256 0.0290646
-0.665217 -0.0311571 0.0293258
-0.665531 -0.0313664 0.0293157
-0.665845 -0.0315757 0.0293057
-0.666159 -0.031785 0.0292957
-0.666473 -0.0319943 0.0292857
-0.666787 -0.0322036 0.0292756
-0.667379 -0.0319685 0.0287231
-0.668251 -0.031289 0.0276282
-0.668426 -0.0317205 0.0278894
-0.668739 -0.0319298 0.0278793
-0.669053 -0.0321391 0.0278693
-0.669228 -0.0325706 0.0281305
-0.669541 -0.0327799 0.0281205
-0.669855 -0.0329892 0.0281105
-0.670867 -0.0320875 0.0267443
-0.67118 -0.0322968 0.0267342
-0.670936 -0.0333948 0.0278091
-0.67125 -0.0336041 0.0277991
-0.671982 -0.0331469 0.0269754
-0.672296 -0.0333561 0.0269653
-0.67275 -0.0333432 0.0266841
-0.673064 -0.0335525 0.0266741
-0.673238 -0.033984 0.0269353
-0.673552 -0.0341933 0.0269252
-0.673866 -0.0344026 0.0269152
-0.674179 -0.0346119 0.0269052
-0.674772 -0.0343768 0.0263527
-0.675505 -0.0339195 0.0255289
-0.675958 -0.0339066 0.0252477
-0.676272 -0.0341159 0.0252377
-0.676586 -0.0343252 0.0252276
-0.676899 -0.0345345 0.0252176
-0.676934 -0.0351882 0.02575
-0.677248 -0.0353975 0.02574
-0.67812 -0.034718 0.024645
-0.678294 -0.0351495 0.0249062
-0.678608 -0.0353588 0.0248962
-0.678922 -0.0355681 0.0248862
-0.679794 -0.0348886 0.0237912
-0.680247 -0.0348757 0.02351
-0.680561 -0.035085 0.0234999
-0.680875 -0.0352943 0.0234899
-0.681189 -0.0355036 0.0234799
-0.681503 -0.0357129 0.0234698
-0.681816 -0.0359222 0.0234598
-0.612399 -0.0100355 0.0426347
-0.612712 -0.0102447 0.0426247
-0.613026 -0.0104538 0.0426147
-0.613201 -0.0108851 0.0428762
-0.613933 -0.010428 0.0420519
-0.614247 -0.0106371 0.0420419
-0.614561 -0.0108463 0.0420319
-0.614596 -0.0114996 0.0425648
-0.615049 -0.0114867 0.0422834
-0.615363 -0.0116959 0.0422734
-0.615677 -0.011905 0.0422634
-0.615712 -0.0125583 0.0427962
-0.617977 -0.00965838 0.0389864
-0.618291 -0.00986754 0.0389764
-0.620137 -0.00763381 0.0359808
-0.618779 -0.0105079 0.0392278
-0.619093 -0.0107171 0.0392178
-0.619407 -0.0109263 0.0392078
-0.618328 -0.0133562 0.041912
-0.61906 -0.0128991 0.0410878
-0.619095 -0.0135525 0.0416206
-0.619409 -0.0137616 0.0416107
-0.619723 -0.0139708 0.0416007
-0.620037 -0.0141799 0.0415907
-0.62049 -0.014167 0.0413093
-0.620804 -0.0143762 0.0412993
-0.6207 -0.0152516 0.0421035
-0.621014 -0.0154607 0.0420936
-0.621467 -0.0154478 0.0418121
-0.621781 -0.015657 0.0418022
-0.622095 -0.0158661 0.0417922
-0.622548 -0.0158532 0.0415108
-0.622862 -0.0160624 0.0415008
-0.625405 -0.0127182 0.0371481
-0.625719 -0.0129274 0.0371381
-0.626033 -0.0131366 0.0371281
-0.626904 -0.0124574 0.0360324
-0.627218 -0.0126666 0.0360224
-0.627532 -0.0128757 0.0360124
-0.625338 -0.0170823 0.040888
-0.628578 -0.0126278 0.0351782
-0.628892 -0.012837 0.0351682
-0.629206 -0.0130461 0.0351582
-0.629659 -0.0130332 0.0348768
-0.630113 -0.0130203 0.0345954
-0.630426 -0.0132294 0.0345854
-0.63088 -0.0132165 0.034304
-0.628407 -0.0178673 0.0397224
-0.631647 -0.0134128 0.0340126
-0.631961 -0.0136219 0.0340026
-0.632553 -0.0133869 0.0334498
-0.632867 -0.0135961 0.0334398
-0.633181 -0.0138052 0.0334298
-0.633217 -0.0144586 0.0339627
-0.63353 -0.0146677 0.0339527
-0.633844 -0.0148769 0.0339427
-0.634716 -0.0141977 0.032847
-0.634612 -0.0150731 0.0336513
-0.634926 -0.0152823 0.0336413
-0.635239 -0.0154914 0.0336313
-0.635971 -0.0150344 0.0328071
-0.636285 -0.0152435 0.0327971
-0.636321 -0.0158968 0.0333299
-0.636635 -0.016106 0.0333199
-0.637088 -0.0160931 0.0330385
-0.637402 -0.0163022 0.0330285
-0.637716 -0.0165114 0.0330185
-0.63803 -0.0167206 0.0330085
-0.638065 -0.0173739 0.0335414
-0.638239 -0.0178051 0.0338028
-0.638553 -0.0180143 0.0337928
-0.638867 -0.0182234 0.0337828
-0.639181 -0.0184326 0.0337729
-0.639913 -0.0179755 0.0329486
-0.640227 -0.0181847 0.0329386
-0.640402 -0.0186159 0.0332
-0.640716 -0.0188251 0.0331901
-0.641587 -0.0181459 0.0320944
-0.641204 -0.0194655 0.0334415
-0.641518 -0.0196746 0.0334315
-0.641832 -0.0198838 0.0334215
-0.642146 -0.020093 0.0334115
-0.64246 -0.0203021 0.0334015
-0.642774 -0.0205113 0.0333915
-0.643088 -0.0207204 0.0333816
-0.64382 -0.0202634 0.0325573
-0.644134 -0.0204725 0.0325473
-0.644447 -0.0206817 0.0325373
-0.644761 -0.0208908 0.0325273
-0.645075 -0.0211 0.0325173
-0.64525 -0.0215312 0.0327788
-0.645564 -0.0217404 0.0327688
-0.646296 -0.0212833 0.0319445
-0.64661 -0.0214925 0.0319345
-0.646924 -0.0217016 0.0319246
-0.646959 -0.022355 0.0324574
-0.647273 -0.0225641 0.0324474
-0.647587 -0.0227733 0.0324374
-0.647761 -0.0232045 0.0326989
-0.648075 -0.0234137 0.0326889
-0.648111 -0.024067 0.0332217
-0.648425 -0.0242762 0.0332117
-0.648878 -0.0242632 0.0329303
-0.649192 -0.0244724 0.0329203
-0.649645 -0.0244595 0.0326389
-0.649959 -0.0246686 0.0326289
-0.650691 -0.0242115 0.0318047
-0.651005 -0.0244207 0.0317947
-0.651319 -0.0246299 0.0317847
-0.651215 -0.0255053 0.032589
-0.651947 -0.0250482 0.0317647
-0.65226 -0.0252573 0.0317547
-0.652574 -0.0254665 0.0317447
-0.653028 -0.0254536 0.0314633
-0.653342 -0.0256627 0.0314533
-0.653098 -0.0267602 0.032529
-0.653412 -0.0269694 0.032519
-0.653726 -0.0271785 0.032509
-0.65404 -0.0273877 0.032499
-0.654772 -0.0269306 0.0316748
-0.655086 -0.0271398 0.0316648
-0.655818 -0.0266827 0.0308406
-0.656132 -0.0268919 0.0308306
-0.656446 -0.027101 0.0308206
-0.656759 -0.0273102 0.0308106
-0.656934 -0.0277414 0.031072
-0.657109 -0.0281727 0.0313335
-0.657423 -0.0283818 0.0313235
-0.657737 -0.028591 0.0313135
-0.65805 -0.0288001 0.0313035
-0.658364 -0.0290093 0.0312935
-0.658957 -0.0287743 0.0307407
-0.659271 -0.0289835 0.0307307
-0.659585 -0.0291926 0.0307207
-0.659759 -0.0296239 0.0309821
-0.660073 -0.029833 0.0309721
-0.660805 -0.0293759 0.0301479
-0.661537 -0.0289189 0.0293236
-0.661851 -0.029128 0.0293136
-0.662026 -0.0295593 0.0295751
-0.66234 -0.0297684 0.0295651
-0.662654 -0.0299776 0.0295551
-0.662689 -0.0306309 0.0300879
-0.663142 -0.030618 0.0298065
-0.663456 -0.0308271 0.0297965
-0.66377 -0.0310363 0.0297865
-0.664084 -0.0312455 0.0297766
-0.664816 -0.0307884 0.0289523
-0.66499 -0.0312196 0.0292137
-0.665304 -0.0314288 0.0292037
-0.665618 -0.0316379 0.0291938
-0.665932 -0.0318471 0.0291838
-0.666246 -0.0320563 0.0291738
-0.66656 -0.0322654 0.0291638
-0.667153 -0.0320304 0.028611
-0.668024 -0.0313513 0.0275153
-0.668199 -0.0317825 0.0277767
-0.668512 -0.0319917 0.0277667
-0.668826 -0.0322008 0.0277567
-0.669001 -0.0326321 0.0280182
-0.669315 -0.0328412 0.0280082
-0.669629 -0.0330504 0.0279982
-0.670639 -0.0321491 0.0266311
-0.670953 -0.0323583 0.0266211
-0.67071 -0.0334558 0.0276968
-0.671024 -0.0336649 0.0276868
-0.671756 -0.0332079 0.0268626
-0.67207 -0.033417 0.0268526
-0.672105 -0.0340703 0.0273854
-0.672419 -0.0342795 0.0273754
-0.673011 -0.0340445 0.0268226
-0.673325 -0.0342537 0.0268126
-0.673639 -0.0344628 0.0268026
-0.673953 -0.034672 0.0267926
-0.674546 -0.034437 0.0262398
-0.675278 -0.0339799 0.0254156
-0.675731 -0.033967 0.0251341
-0.676045 -0.0341761 0.0251242
-0.676359 -0.0343853 0.0251142
-0.676673 -0.0345944 0.0251042
-0.676708 -0.0352478 0.025637
-0.677022 -0.0354569 0.025627
-0.677893 -0.0347778 0.0245314
-0.678068 -0.035209 0.0247928
-0.678382 -0.0354182 0.0247828
-0.678696 -0.0356273 0.0247728
-0.679567 -0.0349482 0.0236772
-0.68002 -0.0349352 0.0233957
-0.680334 -0.0351444 0.0233858
-0.680648 -0.0353536 0.0233758
-0.680962 -0.0355627 0.0233658
-0.681276 -0.0357719 0.0233558
-0.68159 -0.035981 0.0233458
-0.61201 -0.0101449 0.042371
-0.612324 -0.0103539 0.0423612
-0.612638 -0.0105628 0.0423513
-0.612952 -0.0107717 0.0423415
-0.613406 -0.0107587 0.0420599
-0.61372 -0.0109676 0.0420501
-0.614173 -0.0109547 0.0417685
-0.614626 -0.0109418 0.0414869
-0.61494 -0.0111507 0.0414771
-0.615254 -0.0113596 0.0414672
-0.618905 -0.00624446 0.0349349
-0.619219 -0.00645336 0.0349251
-0.616196 -0.0119863 0.0414377
-0.619569 -0.00731484 0.035449
-0.619883 -0.00752375 0.0354392
-0.620197 -0.00773265 0.0354293
-0.620512 -0.00794156 0.0354195
-0.620826 -0.00815047 0.0354097
-0.618081 -0.0132397 0.0413788
-0.618812 -0.0127831 0.0405536
-0.619126 -0.0129921 0.0405438
-0.619579 -0.0129791 0.0402622
-0.619894 -0.013188 0.0402524
-0.620208 -0.0133969 0.0402425
-0.620383 -0.0138277 0.0405045
-0.620836 -0.0138147 0.0402229
-0.620316 -0.0153547 0.0418437
-0.620908 -0.0151199 0.0412903
-0.621083 -0.0155506 0.0415522
-0.621397 -0.0157595 0.0415424
-0.621711 -0.0159684 0.0415326
-0.622442 -0.0155118 0.0407074
-0.624564 -0.0128369 0.0371646
-0.625295 -0.0123803 0.0363395
-0.625609 -0.0125892 0.0363296
-0.625923 -0.0127981 0.0363198
-0.626238 -0.013007 0.03631
-0.62683 -0.0127722 0.0357566
-0.627283 -0.0127593 0.035475
-0.627597 -0.0129682 0.0354652
-0.62805 -0.0129553 0.0351836
-0.628642 -0.0127205 0.0346302
-0.628956 -0.0129294 0.0346204
-0.629966 -0.0120292 0.0332517
-0.63028 -0.0122381 0.0332419
-0.630594 -0.012447 0.0332321
-0.631047 -0.012434 0.0329505
-0.6315 -0.0124211 0.0326689
-0.631814 -0.01263 0.032659
-0.632128 -0.0128389 0.0326492
-0.632442 -0.0130478 0.0326394
-0.632757 -0.0132567 0.0326296
-0.633071 -0.0134656 0.0326197
-0.633385 -0.0136746 0.0326099
-0.633699 -0.0138835 0.0326001
-0.634013 -0.0140924 0.0325902
-0.634744 -0.0136358 0.0317651
-0.63478 -0.0142883 0.0322988
-0.635372 -0.0140536 0.0317454
-0.635547 -0.0144843 0.0320074
-0.636001 -0.0144714 0.0317258
-0.636315 -0.0146803 0.031716
-0.636629 -0.0148892 0.0317061
-0.636387 -0.0159854 0.0327834
-0.636701 -0.0161944 0.0327735
-0.637432 -0.0157378 0.0319484
-0.637746 -0.0159467 0.0319386
-0.637643 -0.0168211 0.032744
-0.638513 -0.0161426 0.0316471
-0.638827 -0.0163515 0.0316373
-0.639142 -0.0165604 0.0316275
-0.639456 -0.0167693 0.0316177
-0.63977 -0.0169783 0.0316078
-0.640084 -0.0171872 0.031598
-0.640398 -0.0173961 0.0315882
-0.640434 -0.0180486 0.0321219
-0.640748 -0.0182575 0.032112
-0.641062 -0.0184665 0.0321022
-0.641376 -0.0186754 0.0320924
-0.64169 -0.0188843 0.0320826
-0.642005 -0.0190932 0.0320727
-0.642319 -0.0193021 0.0320629
-0.642077 -0.0203983 0.0331401
-0.642391 -0.0206072 0.0331303
-0.643261 -0.0199288 0.0320334
-0.643575 -0.0201377 0.0320236
-0.643889 -0.0203466 0.0320137
-0.644203 -0.0205555 0.0320039
-0.644517 -0.0207644 0.0319941
-0.644831 -0.0209733 0.0319843
-0.645146 -0.0211822 0.0319744
-0.645599 -0.0211693 0.0316928
-0.645913 -0.0213782 0.031683
-0.646227 -0.0215871 0.0316732
-0.646541 -0.021796 0.0316633
-0.646855 -0.0220049 0.0316535
-0.647169 -0.0222138 0.0316437
-0.647483 -0.0224227 0.0316339
-0.647797 -0.0226316 0.031624
-0.648112 -0.0228405 0.0316142
-0.648565 -0.0228276 0.0313326
-0.648879 -0.0230365 0.0313228
-0.649193 -0.0232454 0.0313129
-0.649368 -0.0236762 0.0315749
-0.650099 -0.0232196 0.0307497
-0.650413 -0.0234285 0.0307399
-0.650449 -0.024081 0.0312736
-0.650624 -0.0245118 0.0315356
-0.650938 -0.0247207 0.0315257
-0.651253 -0.0249296 0.0315159
-0.652123 -0.0242512 0.030419
-0.652437 -0.0244601 0.0304092
-0.652473 -0.0251126 0.0309429
-0.652787 -0.0253216 0.030933
-0.653101 -0.0255305 0.0309232
-0.653415 -0.0257394 0.0309134
-0.653729 -0.0259483 0.0309036
-0.654043 -0.0261572 0.0308937
-0.654358 -0.0263661 0.0308839
-0.654811 -0.0263532 0.0306023
-0.655125 -0.0265621 0.0305925
-0.655439 -0.026771 0.0305826
-0.655753 -0.0269799 0.0305728
-0.656067 -0.0271888 0.030563
-0.656381 -0.0273977 0.0305531
-0.656695 -0.0276066 0.0305433
-0.657009 -0.0278155 0.0305335
-0.657324 -0.0280244 0.0305237
-0.657499 -0.0284551 0.0307856
-0.658369 -0.0277767 0.0296887
-0.658683 -0.0279856 0.0296789
-0.658858 -0.0284163 0.0299408
-0.659589 -0.0279597 0.0291157
-0.659486 -0.0288342 0.0299211
-0.6598 -0.0290431 0.0299113
-0.660114 -0.029252 0.0299015
-0.660568 -0.029239 0.0296199
-0.66116 -0.0290043 0.0290665
-0.661613 -0.0289913 0.0287849
-0.661927 -0.0292003 0.0287751
-0.661963 -0.0298528 0.0293088
-0.662277 -0.0300617 0.029299
-0.662591 -0.0302706 0.0292891
-0.663183 -0.0300359 0.0287358
-0.66308 -0.0309103 0.0295412
-0.663395 -0.0311192 0.0295314
-0.664265 -0.0304408 0.0284345
-0.664579 -0.0306497 0.0284247
-0.664893 -0.0308586 0.0284149
-0.664929 -0.0315111 0.0289486
-0.665243 -0.0317201 0.0289387
-0.665557 -0.031929 0.0289289
-0.666427 -0.0312505 0.027832
-0.666742 -0.0314594 0.0278222
-0.667195 -0.0314465 0.0275406
-0.667648 -0.0314336 0.027259
-0.667962 -0.0316425 0.0272491
-0.668137 -0.0320732 0.0275111
-0.668451 -0.0322821 0.0275013
-0.668765 -0.032491 0.0274914
-0.669914 -0.0313689 0.025851
-0.670089 -0.0317997 0.0261129
-0.670403 -0.0320086 0.0261031
-0.670717 -0.0322175 0.0260933
-0.67117 -0.0322045 0.0258117
-0.671484 -0.0324134 0.0258018
-0.671659 -0.0328442 0.0260638
-0.671834 -0.0332749 0.0263257
-0.672565 -0.0328183 0.0255006
-0.67288 -0.0330272 0.0254907
-0.673194 -0.0332361 0.0254809
-0.673508 -0.033445 0.0254711
-0.673822 -0.033654 0.0254613
-0.674136 -0.0338629 0.0254514
-0.675006 -0.0331844 0.0243545
-0.675181 -0.0336152 0.0246165
-0.675495 -0.0338241 0.0246066
-0.675809 -0.034033 0.0245968
-0.676124 -0.0342419 0.024587
-0.676438 -0.0344508 0.0245771
-0.676752 -0.0346597 0.0245673
-0.677066 -0.0348686 0.0245575
-0.67738 -0.0350775 0.0245477
-0.678667 -0.0337336 0.0226354
-0.678564 -0.034608 0.0234409
-0.679156 -0.0343732 0.0228876
-0.679471 -0.0345821 0.0228777
-0.679785 -0.034791 0.0228679
-0.680099 -0.0349999 0.0228581
-0.680274 -0.0354307 0.02312
-0.681005 -0.0349741 0.0222949
-0.681319 -0.035183 0.022285
-0.681911 -0.0349482 0.0217317
-0.61183 -0.010227 0.0421849
-0.612144 -0.0104357 0.0421751
-0.612459 -0.0106445 0.0421654
-0.612773 -0.0108533 0.0421557
-0.613226 -0.0108404 0.0418741
-0.61354 -0.0110492 0.0418643
-0.613993 -0.0110363 0.0415827
-0.614446 -0.0110234 0.041301
-0.614761 -0.0112322 0.0412913
-0.615075 -0.011441 0.0412816
-0.618722 -0.00632965 0.0347445
-0.619037 -0.00653843 0.0347348
-0.616017 -0.0120673 0.0412524
-0.619387 -0.00739934 0.0352594
-0.619701 -0.00760812 0.0352497
-0.620016 -0.0078169 0.0352399
-0.62033 -0.00802568 0.0352302
-0.620644 -0.00823446 0.0352205
-0.617902 -0.01332 0.0411942
-0.618633 -0.0128638 0.0403686
-0.618947 -0.0130726 0.0403589
-0.619401 -0.0130597 0.0400772
-0.619715 -0.0132684 0.0400675
-0.620029 -0.0134772 0.0400578
-0.620204 -0.0139077 0.04032
-0.620657 -0.0138948 0.0400384
-0.620138 -0.0154336 0.0416605
-0.62073 -0.015199 0.0411068
-0.620905 -0.0156295 0.0413691
-0.62122 -0.0158383 0.0413594
-0.621534 -0.0160471 0.0413497
-0.622265 -0.0155908 0.0405241
-0.624385 -0.0129179 0.0369787
-0.625115 -0.0124616 0.0361531
-0.62543 -0.0126704 0.0361434
-0.625744 -0.0128792 0.0361337
-0.626058 -0.013088 0.036124
-0.62665 -0.0128534 0.0355703
-0.627103 -0.0128405 0.0352886
-0.627417 -0.0130493 0.0352789
-0.62787 -0.0130364 0.0349973
-0.628462 -0.0128019 0.0344436
-0.628777 -0.0130107 0.0344339
-0.629785 -0.0121111 0.0330643
-0.630099 -0.0123199 0.0330546
-0.630553 -0.012307 0.0327729
-0.630867 -0.0125158 0.0327632
-0.63132 -0.0125029 0.0324816
-0.631634 -0.0127116 0.0324719
-0.631948 -0.0129204 0.0324621
-0.632262 -0.0131292 0.0324524
-0.632577 -0.013338 0.0324427
-0.632891 -0.0135468 0.032433
-0.633205 -0.0137556 0.0324233
-0.633519 -0.0139643 0.0324136
-0.633833 -0.0141731 0.0324039
-0.634564 -0.0137169 0.0315783
-0.634601 -0.014369 0.0321125
-0.635193 -0.0141344 0.0315589
-0.635368 -0.0145649 0.0318211
-0.635821 -0.014552 0.0315394
-0.636135 -0.0147608 0.0315297
-0.636449 -0.0149696 0.03152
-0.636208 -0.016065 0.0325982
-0.636522 -0.0162738 0.0325885
-0.637253 -0.0158176 0.0317629
-0.637567 -0.0160264 0.0317532
-0.63802 -0.0160135 0.0314715
-0.638334 -0.0162223 0.0314618
-0.638649 -0.016431 0.0314521
-0.638963 -0.0166398 0.0314424
-0.639277 -0.0168486 0.0314327
-0.639591 -0.0170574 0.031423
-0.639905 -0.0172662 0.0314133
-0.64022 -0.017475 0.0314035
-0.640256 -0.0181271 0.0319378
-0.64057 -0.0183359 0.0319281
-0.640884 -0.0185446 0.0319184
-0.641199 -0.0187534 0.0319087
-0.641513 -0.0189622 0.031899
-0.641827 -0.019171 0.0318892
-0.642141 -0.0193798 0.0318795
-0.6419 -0.0204752 0.0329577
-0.642214 -0.020684 0.032948
-0.643084 -0.0200061 0.0318504
-0.643398 -0.0202149 0.0318407
-0.643712 -0.0204237 0.031831
-0.644026 -0.0206325 0.0318213
-0.64434 -0.0208412 0.0318116
-0.644655 -0.02105 0.0318019
-0.644969 -0.0212588 0.0317922
-0.645422 -0.0212459 0.0315105
-0.645736 -0.0214547 0.0315008
-0.64605 -0.0216635 0.0314911
-0.646365 -0.0218723 0.0314814
-0.646679 -0.022081 0.0314717
-0.646993 -0.0222898 0.031462
-0.647307 -0.0224986 0.0314522
-0.647621 -0.0227074 0.0314425
-0.647935 -0.0229162 0.0314328
-0.648389 -0.0229033 0.0311511
-0.648703 -0.0231121 0.0311414
-0.649017 -0.0233208 0.0311317
-0.649192 -0.0237513 0.031394
-0.649923 -0.0232951 0.0305684
-0.650237 -0.0235038 0.0305587
-0.650274 -0.024156 0.0310929
-0.650449 -0.0245864 0.0313552
-0.650763 -0.0247952 0.0313455
-0.651077 -0.025004 0.0313358
